VERSION .7
FIELDS x y z intensity
SIZE 8 8 8 4
TYPE F F F F
COUNT 1 1 1 1
WIDTH 842
HEIGHT 1
VIEWPOINT 0.0 0.0 0.0 1.0 0.0 0.0 0.0
POINTS 842
DATA ascii
5.3878869102 3.2512875421 -0.7020954640 470.0000000000
5.3864381404 3.2504132379 -0.7763309753 335.0000000000
5.3603861050 3.2359649401 -0.8502672099 413.0000000000
5.4463497443 3.2891571138 -0.9420281234 590.0000000000
5.4464188194 3.2879044795 -1.0179438311 599.0000000000
5.4436131651 3.2862106541 -1.0925272526 513.0000000000
5.5597693725 3.3589792805 -1.1955016405 190.0000000000
42.3548323281 25.3630887251 4.0490005377 52341.0000000000
40.2716576286 24.1251718040 3.2735189178 48753.0000000000
39.6525299371 23.7542736981 2.6644222521 53657.0000000000
45.4844878468 24.3527323758 2.6580490792 22138.0000000000
39.2919151882 23.5289267653 2.0950691412 8335.0000000000
45.9097737679 24.5907362450 2.0457205636 64419.0000000000
39.5951522197 23.7105137304 1.5627941696 36935.0000000000
45.3357877085 24.2832980565 1.4092350100 31250.0000000000
39.6603354607 23.7589497188 0.9923522430 43623.0000000000
45.6208199359 24.4359669066 0.7856883617 47583.0000000000
40.6078698618 24.3265849893 0.4460232569 61412.0000000000
40.6703618879 24.3543798823 -0.1406124274 61649.0000000000
36.1447443229 19.3522801549 -0.3576765874 54863.0000000000
27.2962550731 16.3520544046 -0.4774333770 16003.0000000000
28.1445773288 15.0879884927 -0.6797758472 22254.0000000000
25.2751195755 15.1412616422 -0.7917390159 33608.0000000000
26.5117219771 14.2007593341 -0.9972493465 4794.0000000000
23.9724559080 14.3608806424 -1.0876499980 9012.0000000000
26.7148296640 14.3215452325 -1.3811128438 11729.0000000000
24.0924861988 14.4327866613 -1.4465755082 10830.0000000000
26.8143799822 14.3749110622 -1.7534715255 9065.0000000000
24.0549255743 14.4102853830 -1.7731445520 11627.0000000000
26.7775012119 14.3431159038 -2.1072267899 34976.0000000000
24.1495327011 14.4726865637 -2.1208289802 21277.0000000000
5.4498405788 3.2659087087 -0.6327897637 601.0000000000
5.5001296870 3.2960471121 -0.7154301082 522.0000000000
5.4321383216 3.2552996964 -0.7814858645 418.0000000000
5.4161796550 3.2470177563 -0.8575491601 539.0000000000
5.5132505137 3.3065210592 -0.9518619569 515.0000000000
5.4641019725 3.2757491046 -1.0193688047 471.0000000000
5.4663479197 3.2770956399 -1.0950726554 431.0000000000
5.5439072043 3.3262212330 -1.1898789409 364.0000000000
40.3592004611 24.0096670864 3.2746322357 26618.0000000000
39.8170257552 23.6871250490 2.6705816030 43338.0000000000
39.4489183647 23.4588183190 2.0995945987 63480.0000000000
46.2620364365 24.5970649358 2.0580481457 43231.0000000000
39.5800891239 23.5368213685 1.5593411720 42802.0000000000
46.0923456318 24.5068440768 1.4304138497 31728.0000000000
39.6428220440 23.5834905207 0.9900983234 25941.0000000000
45.5516679812 24.2193776921 0.7832134054 39475.0000000000
39.6742579965 23.6021919025 0.4349681560 22100.0000000000
47.3632443423 25.1825528972 0.1591179518 26606.0000000000
41.2537152733 24.5320732392 -0.1423689242 42575.0000000000
36.4167509641 19.3543945429 -0.3597796824 42225.0000000000
27.6419008275 16.4440914721 -0.4825965651 7046.0000000000
28.1421914424 14.9757403022 -0.6786048198 39466.0000000000
25.4838248768 15.1602429149 -0.7968183596 29795.0000000000
26.6575314702 14.1737819342 -1.0010953472 8584.0000000000
24.0902557069 14.3312026916 -1.0909963454 8356.0000000000
26.8838686972 14.3061543388 -1.3875791461 18365.0000000000
24.1752745841 14.3817807830 -1.4488914093 6832.0000000000
26.8204581459 14.2724119501 -1.7509962723 19293.0000000000
24.1341883721 14.3573384209 -1.7757332466 7574.0000000000
26.8513278249 14.2768191826 -2.1095807507 22997.0000000000
24.2143862148 14.4107681470 -2.1226326466 13062.0000000000
5.5248207396 3.2878493536 -0.6403380647 1284.0000000000
5.4734936019 3.2573024912 -0.7106518607 808.0000000000
5.5137378211 3.2812534591 -0.7917956429 557.0000000000
5.4669826939 3.2547170320 -0.8640220048 469.0000000000
5.5225189843 3.2890849039 -0.9517151833 689.0000000000
5.5123042104 3.2817004185 -1.0264936727 863.0000000000
5.5625339469 3.3142309289 -1.1916927150 508.0000000000
40.3588060331 23.8420974011 3.2686481523 41869.0000000000
40.0485272686 23.6587977206 2.6812309480 45961.0000000000
39.5903772938 23.3788243820 2.1032972457 39934.0000000000
46.4062110935 24.4913968089 2.0611104114 32608.0000000000
39.7528005097 23.4747389680 1.5633019634 7342.0000000000
47.7100049481 25.1794728793 1.4782237790 35080.0000000000
39.7270395978 23.4688762885 0.9903988460 32713.0000000000
47.2466671527 24.9349467616 0.8110452760 54601.0000000000
39.6509168649 23.4239061705 0.4339220212 47502.0000000000
47.6516499506 25.1486760802 0.1598270780 36084.0000000000
39.7151421978 23.4525008823 -0.1368086624 17550.0000000000
36.5228335035 19.2673064737 -0.3602421888 47648.0000000000
27.5200432030 16.2574948002 -0.4795947115 16953.0000000000
28.2949717703 14.9458307319 -0.6811810801 28543.0000000000
25.4372632854 15.0270757802 -0.7939158775 17473.0000000000
26.8087274612 14.1488419037 -1.0051402790 10644.0000000000
24.1625007812 14.2739995584 -1.0922804090 9910.0000000000
26.9293994695 14.2245415905 -1.3876702208 11833.0000000000
24.2038063268 14.2984011423 -1.4479650489 12335.0000000000
26.8906020469 14.2040489666 -1.7527231931 9906.0000000000
24.2133523750 14.3040405472 -1.7783219412 9943.0000000000
26.9126475824 14.2036856571 -2.1109654335 24422.0000000000
24.2610592512 14.3379336704 -2.1228581049 14594.0000000000
6.2335231792 3.2944618556 -0.5748209919 188.0000000000
5.5854233637 3.3007537544 -0.6461979299 712.0000000000
5.5750063436 3.2945973629 -0.7225419185 537.0000000000
5.5032733563 3.2522036318 -0.7888499919 196.0000000000
5.6082955473 3.3155891051 -0.8847890480 765.0000000000
5.5794105206 3.2998229443 -0.9597877332 631.0000000000
5.5750431492 3.2959293215 -1.0363101576 589.0000000000
5.5915447654 3.3056855563 -1.1161146516 421.0000000000
5.6022980554 3.3146772806 -1.1980409241 428.0000000000
40.3732520703 23.6838422627 3.2639165515 52609.0000000000
40.2475060780 23.6100762851 2.6896928599 2301.0000000000
40.7046052119 23.8686775975 2.1586083929 47207.0000000000
40.0556847547 23.4881556403 1.5723745454 54514.0000000000
39.7290045000 23.3059093285 0.9886601080 27498.0000000000
47.8419765670 25.0617649994 0.8199429716 29754.0000000000
39.7752063878 23.3330125972 0.4344969241 60294.0000000000
47.4902954098 24.8775428006 0.1590289401 44218.0000000000
39.8257246470 23.3533088046 -0.1369421799 36912.0000000000
36.8298165465 19.2850436164 -0.3626856188 50127.0000000000
27.6905329613 16.2438184773 -0.4816960091 32669.0000000000
28.3575155148 14.8677729616 -0.6815856169 24479.0000000000
25.6522427470 15.0481026733 -0.7991833450 26593.0000000000
26.8139398826 14.0465852669 -1.0037146063 10573.0000000000
24.4759496087 14.3580575140 -1.1044595572 6147.0000000000
27.2365661899 14.2800839583 -1.4012403484 5329.0000000000
24.5731673134 14.4150880316 -1.4674186177 5414.0000000000
27.1232700693 14.2206853016 -1.7650418949 9105.0000000000
24.4284255624 14.3301786316 -1.7908865809 7007.0000000000
26.9914451157 14.1395683673 -2.1137347991 19933.0000000000
24.5921774356 14.4320068714 -2.1479591292 3826.0000000000
6.1306232010 3.2160652058 -0.5643996595 326.0000000000
6.2284577875 3.2646130688 -0.6584922815 138.0000000000
5.6392911963 3.3092878718 -0.6512632372 1069.0000000000
5.6185150866 3.2970951732 -0.7268756778 459.0000000000
5.7169366386 3.3548549916 -0.8180610307 211.0000000000
5.6517662033 3.3179324522 -0.8900482343 908.0000000000
5.5860962310 3.2806862008 -0.9592006387 585.0000000000
5.6064158187 3.2913074159 -1.0402684176 813.0000000000
5.6492521014 3.3164564327 -1.1256174886 386.0000000000
5.6573789255 3.3238780673 -1.2076539265 701.0000000000
43.9755877337 25.6160507135 3.5488563358 40992.0000000000
40.3128501158 23.4824675165 2.6892323477 58866.0000000000
40.5108904634 23.5883622335 2.1444834801 26492.0000000000
39.9893679799 23.2846917962 1.5669580785 64531.0000000000
46.4294727495 24.1406081096 1.4339208245 51723.0000000000
39.9022579612 23.2432932667 0.9911930843 46889.0000000000
47.7802459636 24.8429148932 0.8175743018 32180.0000000000
39.7964889833 23.1816817243 0.4339502951 51086.0000000000
47.7953026736 24.8507433202 0.1597944404 47081.0000000000
39.9300227053 23.2501364203 -0.1370549280 26822.0000000000
37.0334370267 19.2471249337 -0.3641080440 36226.0000000000
27.8352769702 16.2141498862 -0.4833470285 31731.0000000000
29.1364457094 15.1623708930 -0.6991936112 39703.0000000000
25.9349635965 15.1071973534 -0.8065470496 21559.0000000000
24.5164305847 14.2808869500 -1.1043039131 8558.0000000000
27.6807935132 14.4048888436 -1.4218232264 6499.0000000000
25.1082911663 14.6256519656 -1.4967018998 13334.0000000000
27.5431552879 14.3332656322 -1.7895066063 5496.0000000000
24.8465409893 14.4731797337 -1.8182888603 3924.0000000000
6.0884884599 3.1661420566 -0.4753088549 178.0000000000
5.6683314321 3.3029932354 -0.6534482717 382.0000000000
5.6766883547 3.3078631844 -0.7330985118 684.0000000000
5.7151977320 3.3303043045 -0.8163427343 829.0000000000
5.7389608011 3.3454912189 -0.9021848181 349.0000000000
5.6627835573 3.3024031300 -0.9706489823 512.0000000000
5.6241641595 3.2785672878 -1.0416933912 599.0000000000
5.6389670676 3.2871970595 -1.1215448441 603.0000000000
5.6624533535 3.3035323209 -1.2065656621 436.0000000000
40.4089009941 23.3726749148 2.6908441405 65275.0000000000
41.3760993535 23.9224772911 2.1864011015 56833.0000000000
40.1635773315 23.2214262073 1.5709865758 60271.0000000000
48.3057176621 24.9281589407 1.4895118540 38927.0000000000
39.8426998308 23.0451791453 0.9879517333 27261.0000000000
47.3053364334 24.4119238739 0.8081603576 31073.0000000000
39.8933897875 23.0744986654 0.4342330342 55377.0000000000
47.2768121697 24.3972042602 0.1578094804 154.0000000000
39.9994337765 23.1265223499 -0.1370489939 64436.0000000000
37.3518123956 19.2672721302 -0.3666561924 54718.0000000000
27.9740399586 16.1802411154 -0.4848929831 28914.0000000000
29.3889098215 15.1793483984 -0.7041332178 45611.0000000000
25.9881122953 15.0315629591 -0.8067620483 35105.0000000000
24.8429744496 14.3692050829 -1.1170278155 13747.0000000000
6.1124863167 3.1575309825 -0.3129889805 129.0000000000
25.1625531633 14.5540522424 -1.4972680090 7388.0000000000
25.0895244215 14.5118117711 -1.8328108057 5668.0000000000
6.2616421492 3.2331854426 -0.6598934803 291.0000000000
5.7413102737 3.3219679077 -0.6606986134 434.0000000000
5.7048738097 3.3008842463 -0.7354320745 644.0000000000
5.6841562111 3.2888961775 -0.8104514323 603.0000000000
5.7466249698 3.3263793513 -0.9017802653 440.0000000000
5.6600486236 3.2775787184 -0.9684473777 597.0000000000
5.6222326779 3.2543717879 -1.0394767656 508.0000000000
5.7488150121 3.3276471116 -1.1413989857 713.0000000000
5.6819219929 3.2915673551 -1.2085608136 169.0000000000
44.1942212528 25.3815105430 3.5538662661 43251.0000000000
40.6007525978 23.3177034040 2.6988455402 38834.0000000000
41.1616726409 23.6303020212 2.1712248198 33676.0000000000
40.3585759213 23.1692525044 1.5758275431 64543.0000000000
48.0492127775 24.6094175853 1.4792649122 40691.0000000000
41.6367314978 23.9126885993 1.0306259444 20922.0000000000
48.1275695695 24.6495487624 0.8209147336 64635.0000000000
40.0238250129 22.9863613546 0.4348833343 463.0000000000
47.6843188054 24.4225336634 0.1589191591 38149.0000000000
40.1352399606 23.0410376403 -0.1372715231 22262.0000000000
37.7703489263 19.3366816477 -0.3701817128 53933.0000000000
28.1067866042 16.1421472248 -0.4863338729 35093.0000000000
29.6791176131 15.2140729549 -0.7099670636 32060.0000000000
26.1736685653 15.0319155261 -0.8110888966 20921.0000000000
24.9943880846 14.3546291189 -1.1218527816 5576.0000000000
6.1372572750 3.1465099786 -0.3137631153 226.0000000000
25.2763668438 14.5165756480 -1.5013851664 11688.0000000000
6.2471685931 3.2028505454 -0.4039980414 140.0000000000
25.3658632372 14.5679753716 -1.8497320289 5802.0000000000
6.0944821211 3.1219028381 -0.4742703428 180.0000000000
6.1236020135 3.1408573600 -0.5610615764 130.0000000000
5.7851235711 3.3236711514 -0.6645720836 573.0000000000
5.7442718483 3.3001996365 -0.7392102237 696.0000000000
5.8078080068 3.3367045814 -0.8266525126 446.0000000000
5.8023336807 3.3349036339 -0.9089273646 808.0000000000
5.7241006516 3.2912628322 -0.9776941167 610.0000000000
5.6981063754 3.2749952351 -1.0516682065 431.0000000000
5.7572882096 3.3090121265 -1.1410595987 487.0000000000
5.7115996468 3.2853983394 -1.2127324939 349.0000000000
44.2822815877 25.2517351202 3.5547012544 51270.0000000000
41.1550001835 23.4588911536 2.1670650559 64855.0000000000
40.4720136130 23.0695767095 1.5774863361 38719.0000000000
48.3214238941 24.5619903400 1.4853199233 29218.0000000000
41.1384361417 23.4589604618 1.0165013815 20119.0000000000
48.0960050863 24.4474115664 0.8190926799 4777.0000000000
40.9966806190 23.3781245196 0.4446755336 37726.0000000000
47.9025445801 24.3490769698 0.1593968550 35189.0000000000
40.2257216208 22.9291859110 -0.1373397654 17390.0000000000
37.8152313441 19.2134657261 -0.3700420882 59277.0000000000
28.2265332325 16.0959609997 -0.4875496236 29924.0000000000
29.7719907509 15.1465200741 -0.7110742168 36671.0000000000
26.2691597691 14.9797707790 -0.8126207622 22700.0000000000
25.1450770766 14.3387637703 -1.1266388366 3914.0000000000
6.1085959353 3.1081891045 -0.3118050096 272.0000000000
25.3164464496 14.4364869805 -1.5011278441 7423.0000000000
6.1368404538 3.1225580006 -0.3962268978 227.0000000000
25.2829959878 14.4174118887 -1.8404506117 5750.0000000000
6.0568977942 3.0792329120 -0.4706009334 177.0000000000
6.2414264041 3.1743957440 -0.6556898838 385.0000000000
5.8333225571 3.3276019853 -0.6689421526 444.0000000000
5.7595489943 3.2855156217 -0.7398769559 519.0000000000
5.8421543973 3.3326403760 -0.8300891054 402.0000000000
5.8314704336 3.3278917540 -0.9118940850 540.0000000000
5.8217911810 3.3237120889 -0.9926650275 948.0000000000
5.7081271028 3.2574982783 -1.0516682065 568.0000000000
5.7751162569 3.2957297689 -1.1425868403 855.0000000000
5.7344612599 3.2751761299 -1.2154531549 488.0000000000
44.3753357531 25.1247010585 2.9395207369 44276.0000000000
41.5214958705 23.4993178746 2.1825613194 8784.0000000000
48.1743187746 24.3015239616 1.4784977614 48921.0000000000
41.1423536620 23.2942174597 1.0148270413 33212.0000000000
47.8136889039 24.1196084544 0.8130191675 43072.0000000000
41.0977962379 23.2689894715 0.4449959713 41975.0000000000
47.1100806178 23.7646815097 0.1565158442 30480.0000000000
38.1141844785 19.2184657410 -0.3723895262 47385.0000000000
28.3236377074 16.0363828506 -0.4883751333 42813.0000000000
30.1128368799 15.2038044331 -0.7181003814 53348.0000000000
26.5307250514 15.0212528194 -0.8192857211 34324.0000000000
25.3028592989 14.3260469512 -1.1317361798 9949.0000000000
6.1412885605 3.1011394187 -0.3129889805 318.0000000000
25.4171058598 14.3907322634 -1.5044730345 11762.0000000000
6.1472826446 3.1041656893 -0.3962844618 271.0000000000
25.4243769220 14.3948490695 -1.8475221677 7483.0000000000
6.1251020532 3.0902899324 -0.4751703867 224.0000000000
6.1045042741 3.0839024006 -0.5575606601 597.0000000000
6.2849124008 3.1722779137 -0.6592395875 290.0000000000
5.8435040434 3.3096899435 -0.6689421526 942.0000000000
5.8033259859 3.2869322496 -0.7442107153 348.0000000000
5.8471700877 3.3117664679 -0.8293526927 220.0000000000
5.8614806787 3.3212208806 -0.9149956564 360.0000000000
44.4382842203 24.9806137773 2.9385997125 9517.0000000000
41.7440578648 23.4564808550 2.1904694421 31180.0000000000
42.0312693062 23.6178696569 1.6325988868 36331.0000000000
48.3487624595 24.2037296812 1.4815663643 16604.0000000000
41.3765974066 23.2594987696 1.0188411647 37941.0000000000
48.5464215889 24.3026769664 0.8242096141 28964.0000000000
41.3040997177 23.2187444835 0.4464567903 47178.0000000000
48.0957564622 24.0770759989 0.1595452078 41084.0000000000
41.4885195029 23.3128896740 -0.1411613327 47359.0000000000
38.4072621562 19.2186788444 -0.3746758785 53839.0000000000
28.3491698927 15.9361824509 -0.4879698831 35444.0000000000
30.1924124157 15.1279184558 -0.7188881635 37239.0000000000
26.5566427193 14.9285204634 -0.8186675999 36081.0000000000
25.4738648027 14.3198411844 -1.1374171883 9203.0000000000
6.1213005205 3.0675165445 -0.3114862482 318.0000000000
25.4646185952 14.3146434659 -1.5046788923 6605.0000000000
6.1880172938 3.1009437956 -0.3982992028 372.0000000000
25.5536769172 14.3647072457 -1.8537097792 10160.0000000000
6.1273019995 3.0718588335 -0.5587819100 320.0000000000
6.2892738769 3.1503061190 -0.6586791080 192.0000000000
5.8865883901 3.3102814507 -0.6727163031 175.0000000000
45.1101257231 25.1764696841 2.9779159429 53005.0000000000
44.7583586108 24.9699016501 2.3446549788 38473.0000000000
42.0694912477 23.4698185690 1.6312786230 36697.0000000000
48.5033631461 24.0953092974 1.4840322060 37568.0000000000
42.0737067156 23.4817972318 1.0342322157 15721.0000000000
48.7747752336 24.2301372320 0.8268212244 40859.0000000000
41.2747251331 23.0358732423 0.4453729569 57797.0000000000
47.8962458713 23.7937148879 0.1586402559 60427.0000000000
38.4884341481 19.1118745988 -0.3748940419 47761.0000000000
28.8240048345 16.0869335047 -0.4952944058 28947.0000000000
30.4132509714 15.1220138667 -0.7230399881 36697.0000000000
26.6677846373 14.8835136340 -0.8206832125 26033.0000000000
25.7061473656 14.3468089864 -1.1458219679 5816.0000000000
6.1369442133 3.0518354367 -0.3118050096 225.0000000000
25.5598663810 14.2651673045 -1.5077152959 8229.0000000000
6.1438651499 3.0552765260 -0.3948453612 553.0000000000
6.1502024517 3.0557556246 -0.4756550256 178.0000000000
6.1527602919 3.0610359986 -0.5602474099 417.0000000000
6.2570045578 3.1101701674 -0.6542886849 435.0000000000
45.4552406651 25.1865019060 2.9955880992 25973.0000000000
45.1598333866 25.0125190519 2.3616597282 39571.0000000000
42.2313485794 23.3905173015 1.6347654736 41059.0000000000
48.5187787806 23.9176610834 1.4822513203 40210.0000000000
42.3274450473 23.4533943092 1.0386971231 22510.0000000000
49.0291476427 24.1692450741 0.8298731644 41341.0000000000
41.3976834807 22.9382146008 0.4459384352 53639.0000000000
48.0156594281 23.6696507052 0.1587945428 43468.0000000000
38.8061166311 19.1214334211 -0.3774160107 50495.0000000000
28.8705994022 15.9969731531 -0.4952493780 26689.0000000000
30.5213659741 15.0591588036 -0.7245090952 56522.0000000000
26.8060055770 14.8529843252 -0.8235319449 30118.0000000000
25.7771368708 14.2828894760 -1.1470282094 5027.0000000000
6.1516533861 3.0356451855 -0.3120782337 1029.0000000000
25.9485587447 14.3778741196 -1.5280437607 8465.0000000000
6.1299318280 3.0249282167 -0.3933486965 877.0000000000
6.1461265595 3.0302564370 -0.4746165135 413.0000000000
6.1424602850 3.0324400101 -0.5584562433 839.0000000000
6.2888406060 3.1019684840 -0.6566240163 237.0000000000
5.9781527498 3.3136585074 -0.6808605226 134.0000000000
45.7072433748 25.1431654321 3.0071009046 8288.0000000000
45.1785851717 24.8420853746 2.3586427565 36449.0000000000
42.3607112436 23.2926258319 1.6369997661 53280.0000000000
48.7975613869 23.8692776614 1.4885255174 37807.0000000000
42.4062076750 23.3272801379 1.0388688503 24905.0000000000
48.6872039292 23.8152976683 0.8228430738 40830.0000000000
47.3047175350 26.0219289776 0.5087253764 26682.0000000000
48.0602038641 23.5086082983 0.1587025641 51504.0000000000
47.1052285801 25.9014855077 -0.1594591632 46238.0000000000
38.9679066742 19.0527978990 -0.3784195623 52568.0000000000
29.1411902565 16.0302520992 -0.4990467228 40332.0000000000
30.7119913816 15.0362260058 -0.7279370119 40591.0000000000
27.0169860432 14.8617366562 -0.8286112886 36864.0000000000
6.1218952121 2.9950004438 -0.2256288799 1103.0000000000
26.3802901949 14.5114930560 -1.1718923490 8004.0000000000
6.1959288932 3.0338885614 -0.3138541899 1468.0000000000
26.4948084781 14.5744890625 -1.5575843652 5217.0000000000
6.1705661986 3.0214717379 -0.3953634374 1976.0000000000
26.5653571767 14.6132975930 -1.9172906442 14499.0000000000
6.1948245183 3.0306729169 -0.4776628157 1328.0000000000
6.1955939139 3.0350625623 -0.5624456597 850.0000000000
6.2196300262 3.0441489650 -0.6484036497 1246.0000000000
45.7657662166 24.9927707999 3.0058920600 4605.0000000000
45.3054426274 24.7311235604 2.3612940346 50528.0000000000
42.3275816128 23.1055704582 1.6329712689 50672.0000000000
45.0537768416 24.6039491286 1.1018927354 44278.0000000000
48.7564409565 23.6640690237 0.8227823387 28535.0000000000
47.5607299046 25.9730112438 0.5106197287 26772.0000000000
48.1905774171 23.3894320232 0.1588954227 45632.0000000000
47.3213981732 25.8315922442 -0.1599220238 32862.0000000000
39.2358023244 19.0348512966 -0.3804528450 45534.0000000000
29.1524983144 15.9201654806 -0.4984013243 39045.0000000000
30.8434092769 14.9834326903 -0.7299596956 39553.0000000000
27.2221295965 14.8659795370 -0.8335025084 32539.0000000000
6.1256600610 2.9735862842 -0.2254299488 269.0000000000
26.5290485399 14.4874838120 -1.1765227600 11704.0000000000
6.1755552780 3.0004611642 -0.3123514577 1032.0000000000
26.5472861193 14.4974434635 -1.5580475454 8017.0000000000
6.2265026940 3.0252100311 -0.3983567668 1333.0000000000
26.6293350075 14.5422508539 -1.9186796998 12754.0000000000
6.1969134881 3.0081685220 -0.4771089426 1227.0000000000
6.2245975536 3.0256248170 -0.5642368262 517.0000000000
6.3229812566 3.0707154434 -0.6582120417 240.0000000000
45.4592708421 24.6343712594 2.3653623752 47853.0000000000
45.0870933129 24.4326867977 1.7365611984 54375.0000000000
45.3830562125 24.6033153423 1.1080963808 50360.0000000000
48.6990863546 23.4519048680 0.8205958742 16966.0000000000
48.2089510810 23.2158770992 0.1587203664 47657.0000000000
39.7165926029 19.1177916894 -0.3845455902 12325.0000000000
29.1572523767 15.8068247443 -0.4976508609 31214.0000000000
30.9648846904 14.9251991911 -0.7317481739 41004.0000000000
27.2605792353 14.7785818526 -0.8332875098 23808.0000000000
26.7209512122 14.4860334600 -1.1830598108 6269.0000000000
6.2162276255 2.9966814132 -0.3139452646 703.0000000000
26.6513397502 14.4482950171 -1.5615471292 8967.0000000000
6.2006807323 2.9891880211 -0.3961117697 748.0000000000
26.6834757226 14.4657168830 -1.9193742276 22931.0000000000
6.2438634157 3.0073213330 -0.4800167765 375.0000000000
6.2087135314 2.9943925777 -0.5619571597 373.0000000000
6.1655377061 2.9709262116 -0.6408371759 274.0000000000
46.2329821599 24.8808612016 3.0264999817 36646.0000000000
45.6243677301 24.5430597065 2.3700249678 31542.0000000000
45.2753798550 24.3553246122 1.7409282248 47195.0000000000
45.4363151247 24.4521215673 1.1075597333 26298.0000000000
47.6883830757 25.6641094456 0.5102898664 17500.0000000000
39.8472456885 19.0303273533 -0.3852437130 43115.0000000000
29.4081202757 15.8262815438 -0.5011029925 31711.0000000000
31.1593501012 14.9012980448 -0.7352612562 43786.0000000000
27.5619470624 14.8327326792 -0.8411080866 36952.0000000000
26.7714273707 14.4073013403 -1.1833321879 8172.0000000000
6.2172811180 2.9737174482 -0.3135354286 511.0000000000
26.7377528707 14.3891788472 -1.5640174236 19119.0000000000
6.2269347081 2.9783339046 -0.3972054863 851.0000000000
26.7470644339 14.3941900200 -1.9207632833 21972.0000000000
6.2125541969 2.9687981385 -0.4769012402 230.0000000000
6.1855040435 2.9598452432 -0.5590261600 178.0000000000
6.2042666635 2.9661660333 -0.6439198134 183.0000000000
46.0616188853 24.5963659896 2.3888124731 56678.0000000000
45.1753299054 24.1230944731 1.7342253470 54631.0000000000
48.7381331977 23.1033843679 1.4779497966 12482.0000000000
46.7686032061 24.9843786572 1.1381701080 52920.0000000000
47.6354785054 25.4474778760 0.5088855953 35015.0000000000
40.3256446737 19.1070825341 -0.3893015520 2201.0000000000
29.7925515033 15.9154891784 -0.5068215236 25535.0000000000
31.3313772559 14.8656296829 -0.7382420533 32154.0000000000
27.7774936872 14.8390117414 -0.8462949296 38583.0000000000
26.7917056032 14.3123873330 -1.1822815904 20097.0000000000
6.2290826960 2.9559137178 -0.3136720406 227.0000000000
26.7808915559 14.3066102889 -1.5639659592 14510.0000000000
6.3100045736 2.9943068844 -0.4019257365 331.0000000000
26.8069441582 14.3205280228 -1.9218997833 22946.0000000000
6.3911061203 3.0300578732 -0.4899172587 188.0000000000
6.2999020565 2.9908583189 -0.5685519091 378.0000000000
46.3778203693 24.5826562342 2.4012917650 31268.0000000000
45.4663552294 24.0995286850 1.7425531649 52438.0000000000
47.6682710820 25.2773227789 0.5084049387 26866.0000000000
40.4103187315 18.9956114585 -0.3895546216 10288.0000000000
29.9004251943 15.8553970738 -0.5078271446 29113.0000000000
31.7667094542 14.9529471530 -0.7474186501 35622.0000000000
27.8273041654 14.7560633427 -0.8464293038 27648.0000000000
26.9175898516 14.2736604262 -1.1859003150 12793.0000000000
6.2489681143 2.9418944551 -0.3142184887 133.0000000000
26.8387743805 14.2318661920 -1.5647893907 10852.0000000000
6.3019989337 2.9668557539 -0.4008320200 427.0000000000
26.8851393698 14.2564525986 -1.9243622002 20219.0000000000
6.3019714057 2.9641612782 -0.4823707373 331.0000000000
6.3198686791 2.9766118450 -0.5695289090 138.0000000000
6.2791065927 2.9547444670 -0.6498048486 183.0000000000
46.3761074129 24.3997888576 2.3973148478 25269.0000000000
46.1795550516 24.2963762891 1.7670288247 2158.0000000000
46.3795877148 24.4119536956 1.1250329766 32395.0000000000
47.6234851760 25.0666856948 0.5071043386 32522.0000000000
47.0465609481 24.7525361955 -0.1576907982 46020.0000000000
40.5943779327 18.9302873395 -0.3907676100 50214.0000000000
30.2373742990 15.9154143978 -0.5127201659 24975.0000000000
31.9954224416 14.9408642493 -0.7517195145 32598.0000000000
27.9653255098 14.7195095162 -0.8492511614 33882.0000000000
26.9055474245 14.1616897230 -1.1834489209 3361.0000000000
6.2833083463 2.9345434919 -0.3154935342 278.0000000000
26.9397533482 14.1796941916 -1.5681345811 7965.0000000000
6.2929798280 2.9390596088 -0.3996807394 470.0000000000
26.9534788934 14.1869187049 -1.9261300892 10743.0000000000
6.3137478375 2.9460784531 -0.4825784397 184.0000000000
6.1835876667 2.8892907935 -0.5564208269 223.0000000000
47.2827905770 24.7024065478 1.1451035940 19813.0000000000
47.7072548728 24.9241652223 0.5071797357 55648.0000000000
47.1240520599 24.6090086906 -0.1576967323 54946.0000000000
41.1123987576 19.0185075886 -0.3951919635 261.0000000000
30.4260839477 15.8957272665 -0.5150916303 37023.0000000000
32.0919114317 14.8661657150 -0.7529118333 38698.0000000000
28.0812333977 14.6706749944 -0.8514011481 29940.0000000000
27.1534551115 14.1859631233 -1.1924373658 10031.0000000000
6.2940947015 2.9160925227 -0.3155846089 225.0000000000
27.0344681904 14.1237991623 -1.5711195202 13595.0000000000
6.3934603186 2.9621206967 -0.4054947061 333.0000000000
27.0340284260 14.1235694102 -1.9287819226 13494.0000000000
46.6074301399 24.1575231350 2.4015660352 48535.0000000000
47.4506581867 24.6050925829 1.1473360477 62830.0000000000
48.6001858287 25.2011738542 0.5158504031 48595.0000000000
47.3626888189 24.5489911455 -0.1582426705 52289.0000000000
41.4050357548 18.9998829249 -0.3974434097 41403.0000000000
30.5448321232 15.8386689453 -0.5162773625 31389.0000000000
32.2636446933 14.8256626824 -0.7558713390 20468.0000000000
28.3186813437 14.6843106347 -0.8572329872 13348.0000000000
27.3485386903 14.1812484681 -1.1990911496 4493.0000000000
6.1484453784 3.1880560367 -0.3561978299 272.0000000000
47.2250635537 24.2941391098 1.7984104798 11906.0000000000
46.7845393294 24.0778417234 1.1294334863 41124.0000000000
48.1526961263 24.7819742913 0.5102898664 41666.0000000000
41.6933926205 18.9775694220 -0.3996512231 52412.0000000000
30.7257496289 15.8130603360 -0.5185137434 31656.0000000000
4.1408986648 1.8879137432 -0.0966254764 299.0000000000
6.2370138623 3.2097414473 -0.1882108611 902.0000000000
7.0536188555 3.2125310624 -0.2566621268 506.0000000000
6.1590852357 3.1696348717 -0.3562492944 274.0000000000
6.4696547743 2.9493347719 -0.4091788039 137.0000000000
4.1350526896 1.8861183189 -0.3701395104 96.0000000000
4.2002118960 1.9140653501 -0.4317783066 80.0000000000
4.1476372091 1.8909850965 -0.4832726085 287.0000000000
4.1175716722 1.8781469812 -0.5324254415 239.0000000000
4.1438271330 1.8901194619 -0.5921633226 583.0000000000
4.1306932113 1.8823941627 -0.6440930657 622.0000000000
48.7369214407 24.8830989122 1.8530829426 26310.0000000000
47.5784802576 24.3021082643 1.1467994002 30496.0000000000
47.7734471909 24.4016941227 0.5054738761 32560.0000000000
47.3592389218 24.1797048114 -0.1577323369 40125.0000000000
42.1168856633 19.0145596189 -0.4031505639 40480.0000000000
30.9593329603 15.8133249434 -0.5216356711 52594.0000000000
4.1503152200 1.8768481739 -0.0967106420 405.0000000000
6.2352588510 3.1846801539 -0.1878614883 1338.0000000000
4.1605607034 1.8797363610 -0.1509965733 509.0000000000
6.1357961336 3.1338762564 -0.2677559663 274.0000000000
4.1141904428 1.8605165709 -0.2052020951 847.0000000000
6.1474356051 3.1398215044 -0.3550141471 224.0000000000
4.1462097634 1.8749921434 -0.2615846387 673.0000000000
4.1001516184 1.8524514898 -0.3112931752 681.0000000000
6.0790523143 3.1062276731 -0.5134615927 178.0000000000
4.1462684257 1.8758877057 -0.3706280103 488.0000000000
4.1443683287 1.8732911463 -0.4254262051 533.0000000000
4.1271422741 1.8663719472 -0.4802060492 589.0000000000
4.1224095101 1.8650963443 -0.5323082507 819.0000000000
4.1225018645 1.8651381161 -0.5882838781 970.0000000000
4.1310357441 1.8672664380 -0.6432476583 682.0000000000
4.1069318972 1.8580958369 -0.6940943653 511.0000000000
4.0164535121 1.8171725623 -0.7322585001 56.0000000000
4.3191907980 1.9531949118 -0.8436273143 63.0000000000
49.0020328749 24.8292259118 1.8602597612 35634.0000000000
47.7910336736 24.2260915433 1.1501266148 40157.0000000000
48.2173342457 24.4421922446 0.5093756765 38005.0000000000
46.8301932945 23.7287512972 -0.1557266075 44798.0000000000
42.3502514866 18.9637192841 -0.4048260587 64891.0000000000
31.2021238129 15.8168251953 -0.5249076915 44353.0000000000
4.1204756132 1.8481531480 -0.0958802771 849.0000000000
6.2414334791 3.1637277338 -0.1877539889 1483.0000000000
4.1325600592 1.8518446725 -0.1497698317 894.0000000000
6.1409255101 3.1127781362 -0.2675614112 275.0000000000
4.0825067085 1.8311279372 -0.2033350641 470.0000000000
6.1597117977 3.1223012995 -0.3551685405 415.0000000000
4.1346345115 1.8545019808 -0.2604909222 1207.0000000000
6.0185017707 3.0507189750 -0.4260131364 310.0000000000
4.1049051430 1.8394558342 -0.3112239410 762.0000000000
6.1187911466 3.1028975279 -0.5160167868 271.0000000000
4.1474572199 1.8611185566 -0.3702209270 1072.0000000000
6.1358128506 3.1115299213 -0.6018964579 182.0000000000
4.1428276111 1.8573099738 -0.4246788990 802.0000000000
4.1446443710 1.8589903896 -0.4815807137 1097.0000000000
4.1299243624 1.8532531690 -0.5325426322 924.0000000000
4.1327283022 1.8545110401 -0.5889304522 1285.0000000000
4.1457793458 1.8586329094 -0.6446566706 897.0000000000
4.1324506219 1.8543864703 -0.6974524644 748.0000000000
4.0670090156 1.8250288142 -0.7404764505 57.0000000000
48.2770516785 24.2760259685 1.8298936937 12031.0000000000
48.2840073132 24.2900798836 1.1601941224 34429.0000000000
48.0625200023 24.1786561252 0.5069535444 26432.0000000000
47.6657367908 23.9686250952 -0.1582604728 28752.0000000000
42.3826429541 18.8223373839 -0.4045817157 60317.0000000000
31.2513955322 15.7214733476 -0.5249227008 42048.0000000000
4.1124236062 1.8294091715 -0.0955609060 844.0000000000
6.2118180829 3.1247976439 -0.1865714962 2436.0000000000
4.1446154943 1.8419980821 -0.1500019180 1040.0000000000
4.1346566150 1.8392966135 -0.2056574685 1202.0000000000
6.1772911855 3.1074281763 -0.3556317207 325.0000000000
4.1393923817 1.8414026991 -0.2604333582 1163.0000000000
4.1278508749 1.8345495451 -0.3125393897 851.0000000000
4.1686279756 1.8552732625 -0.3716050102 1183.0000000000
6.1551182111 3.0976171648 -0.6028570836 420.0000000000
4.1448670861 1.8429735674 -0.4243052460 926.0000000000
4.1494195720 1.8458619814 -0.4814749703 1055.0000000000
4.1364979787 1.8409777242 -0.5326598230 1217.0000000000
4.1601418393 1.8514975421 -0.5920340078 960.0000000000
4.1505573674 1.8455029543 -0.6445157694 792.0000000000
4.1317997636 1.8388873563 -0.6963839783 621.0000000000
4.0843048763 1.8177555467 -0.7426131176 78.0000000000
4.1700830871 1.8550514397 -0.8121751577 103.0000000000
48.5274728563 24.2157114203 1.8365627185 14767.0000000000
48.3207321761 24.1230767620 1.1592925545 34594.0000000000
48.5918558874 24.2584304296 0.5117506853 50556.0000000000
42.8803705511 18.8860869312 -0.4087791793 52604.0000000000
31.4095171862 15.6804548999 -0.5267688408 36273.0000000000
4.1372266211 1.8252563019 -0.0960080256 564.0000000000
6.1999105049 3.0950092871 -0.1859265002 2562.0000000000
4.1475033640 1.8280649071 -0.1499024524 667.0000000000
4.1183437600 1.8169280293 -0.2045645723 660.0000000000
6.1948372150 3.0924765378 -0.3560949009 560.0000000000
4.1623776731 1.8363491556 -0.2615270747 922.0000000000
6.0683594174 3.0293347577 -0.4282229977 264.0000000000
4.1389372015 1.8242903784 -0.3129547946 896.0000000000
4.1752121085 1.8428777231 -0.3716864269 744.0000000000
6.1351828041 3.0640302227 -0.5999752065 324.0000000000
4.1568789538 1.8330599560 -0.4249591388 780.0000000000
4.1414156039 1.8271038498 -0.4798888190 1110.0000000000
4.1475780688 1.8306839877 -0.5333629674 781.0000000000
4.1685242009 1.8399266318 -0.5924219523 878.0000000000
4.1616351725 1.8351566914 -0.6453611768 919.0000000000
4.1383261148 1.8266014909 -0.6965366192 788.0000000000
4.1385946611 1.8267199891 -0.7514885041 939.0000000000
4.1946699197 1.8505916282 -0.8158650755 621.0000000000
48.9956152157 24.2618599686 1.8514580025 26186.0000000000
48.2807389165 23.9183528625 1.1565663851 26432.0000000000
47.8461852484 23.7030726374 0.5031271412 44983.0000000000
48.3702043596 23.9521639982 -0.1601089483 53093.0000000000
42.9546050938 18.7616472258 -0.4089362569 6875.0000000000
31.4386610171 15.5746968594 -0.5264536461 37295.0000000000
4.1455549184 1.8137568085 -0.0960718998 770.0000000000
6.2013149828 3.0719798551 -0.1856846267 2219.0000000000
4.1421023025 1.8105296165 -0.1495045903 1116.0000000000
4.1705760834 1.8247008029 -0.2068869767 988.0000000000
6.1649209024 3.0539500319 -0.3538304644 554.0000000000
4.1817120534 1.8295715590 -0.2623905351 1434.0000000000
6.0981931685 3.0208927535 -0.4296751922 590.0000000000
4.1545700578 1.8159776976 -0.3137163701 1167.0000000000
4.1972818253 1.8372518110 -0.3731519268 1532.0000000000
6.1659758585 3.0558103676 -0.6020711171 514.0000000000
4.1606586234 1.8195005596 -0.4247723123 1220.0000000000
4.1524679362 1.8167804897 -0.4805232795 1175.0000000000
4.1540848208 1.8183489134 -0.5334801582 1282.0000000000
4.1786915604 1.8291167591 -0.5930685263 1112.0000000000
4.1735956327 1.8251563817 -0.6463474854 1283.0000000000
4.1411944060 1.8127081011 -0.6960786966 703.0000000000
4.1541198059 1.8183642228 -0.7532964532 1177.0000000000
4.1669559237 1.8231173831 -0.8093637918 952.0000000000
48.5997971416 23.8804730622 1.8337190734 31623.0000000000
49.1380614718 24.1556070585 1.1753275825 20683.0000000000
48.4580089470 23.8212998705 0.5087913489 46567.0000000000
43.3569778021 18.7792080705 -0.4122174343 42588.0000000000
31.8021538071 15.6334439440 -0.5317369085 37069.0000000000
4.1446794544 1.7982450730 -0.0959228599 890.0000000000
6.2008423829 3.0480889616 -0.1853890035 2643.0000000000
4.1485544896 1.7982106873 -0.1495377455 1914.0000000000
4.1926509820 1.8190522182 -0.2077066488 1810.0000000000
6.1912897678 3.0433929892 -0.3548082893 1085.0000000000
4.1854736231 1.8159391143 -0.2622754071 2226.0000000000
6.1190756936 3.0078932547 -0.4304959978 688.0000000000
4.1573757764 1.8020331696 -0.3135086677 2092.0000000000
6.2047275315 3.0513409168 -0.5200750362 710.0000000000
4.2111274236 1.8279369223 -0.3738846767 2258.0000000000
6.1511860861 3.0250088605 -0.5997132176 559.0000000000
4.1872311690 1.8158357760 -0.4269208172 2239.0000000000
6.3853464400 3.1401705559 -0.7088686920 142.0000000000
4.1908641366 1.8182771928 -0.4843300427 2523.0000000000
4.1942629926 1.8206186555 -0.5379334064 2510.0000000000
4.1915607276 1.8194460160 -0.5941030449 1667.0000000000
4.2173255991 1.8288826782 -0.6522653371 2428.0000000000
4.1684946367 1.8094365584 -0.6997420775 1829.0000000000
4.1605837934 1.8060036728 -0.7534608122 1576.0000000000
4.1689169732 1.8087578417 -0.8086609503 992.0000000000
48.5856940669 23.6887723771 1.8304353404 20792.0000000000
48.6179852457 23.7150174521 1.1611386220 32202.0000000000
48.8319398377 23.8193816356 0.5119486028 55376.0000000000
48.8740028105 23.8293432328 -0.1612898363 17540.0000000000
43.4915674169 18.6792494775 -0.4129504632 31243.0000000000
32.0782299836 15.6471464258 -0.5355492625 45262.0000000000
4.1575243100 1.7886810333 -0.0960931912 894.0000000000
6.2101646057 3.0290507004 -0.1853890035 3257.0000000000
4.2642440613 1.8328226667 -0.1535163669 3117.0000000000
6.1690905811 3.0090153415 -0.2667442799 1500.0000000000
4.1954589747 1.8049967011 -0.2075700368 1515.0000000000
6.1988024607 3.0235083983 -0.3547053603 1749.0000000000
4.1891909225 1.8023008171 -0.2621602790 1907.0000000000
6.1820938807 3.0153581768 -0.4342843314 1888.0000000000
4.1940481281 1.8026604855 -0.3158626285 1834.0000000000
6.2337751646 3.0419119142 -0.5217283971 2363.0000000000
4.2103070131 1.8122510936 -0.3733147601 1872.0000000000
6.1765525017 3.0139871012 -0.6012851506 1562.0000000000
4.1955264326 1.8041606383 -0.4272010570 1525.0000000000
4.1836340090 1.7999107932 -0.4828496348 1500.0000000000
4.1742861774 1.7967511118 -0.5346520656 1412.0000000000
4.1943904195 1.8054020878 -0.5937151004 1368.0000000000
4.1874446342 1.8006863348 -0.6467701891 1433.0000000000
4.1576858358 1.7896078851 -0.6969945418 977.0000000000
4.1679171044 1.7940104614 -0.7537895302 1260.0000000000
4.1672117932 1.7928476118 -0.8072552673 884.0000000000
49.3339475289 23.8771665868 1.1764867412 14892.0000000000
49.1325060193 23.7796700390 0.5143330363 31899.0000000000
48.5859048985 23.5046555183 -0.1601000471 40501.0000000000
43.8025937877 18.6538647641 -0.4153589870 22778.0000000000
32.2916864206 15.6288089003 -0.5383109678 38034.0000000000
4.1565548918 1.7731721420 -0.0959441513 769.0000000000
6.2203281667 3.0104194222 -0.1854158783 2252.0000000000
4.1742216084 1.7789897500 -0.1500682283 1433.0000000000
6.2700353489 3.0344774163 -0.2707132036 234.0000000000
4.1927068741 1.7885898223 -0.2071602007 1300.0000000000
6.1891719001 2.9953399659 -0.3536246065 934.0000000000
4.1570495218 1.7733830862 -0.2598001539 1258.0000000000
6.2227569666 3.0115949475 -0.4364941926 947.0000000000
4.1876278218 1.7847015472 -0.3149625846 1072.0000000000
6.2314108546 3.0171231636 -0.5207514111 906.0000000000
4.1901788914 1.7883735456 -0.3710350936 1493.0000000000
6.2162546510 3.0097843819 -0.6042543574 471.0000000000
4.1992099945 1.7904996353 -0.4270142304 1440.0000000000
4.1690132586 1.7784852426 -0.4805232795 1547.0000000000
4.1715579479 1.7804284592 -0.5335973489 1282.0000000000
4.1971734175 1.7913579333 -0.5933271560 1344.0000000000
4.1811097994 1.7827842063 -0.6449384731 1614.0000000000
4.1549757328 1.7733532467 -0.6956207740 1015.0000000000
4.1634214981 1.7769568415 -0.7519815811 876.0000000000
4.1672593628 1.7777372613 -0.8062010051 924.0000000000
49.1167700845 23.5863421956 1.1695747211 26543.0000000000
48.8050046407 23.4366282843 0.5101484968 34763.0000000000
48.2944751100 23.1810960260 -0.1589043238 22722.0000000000
44.1700652930 18.6504731875 -0.4182998295 30273.0000000000
32.6008734419 15.6551890353 -0.5426636555 45100.0000000000
4.1656586832 1.7619691555 -0.0960293170 1138.0000000000
6.2295347292 2.9913215567 -0.1854158783 2160.0000000000
4.1676910837 1.7611190203 -0.1496372110 1301.0000000000
6.2676055369 3.0096036647 -0.2702073604 230.0000000000
4.1816128802 1.7687153437 -0.2063405286 1209.0000000000
6.2010331065 2.9776346985 -0.3537789999 557.0000000000
4.1900560973 1.7722855347 -0.2615270747 1567.0000000000
6.2427629172 2.9976739084 -0.4372518593 613.0000000000
4.1903265953 1.7706810712 -0.3147548822 1363.0000000000
6.3287226265 3.0403096275 -0.5281163823 138.0000000000
4.1772874711 1.7677432852 -0.3694067604 1106.0000000000
4.1909271555 1.7717942509 -0.4256130316 1264.0000000000
4.1680387994 1.7629755811 -0.4797830756 1108.0000000000
4.1623665275 1.7614309354 -0.5317222970 943.0000000000
4.1898640816 1.7730638580 -0.5915167485 1210.0000000000
4.1810880965 1.7676358561 -0.6440930657 1125.0000000000
4.1694985790 1.7644481711 -0.6971471827 871.0000000000
4.1661281797 1.7630223136 -0.7514885041 642.0000000000
4.1636266372 1.7611099105 -0.8044439014 814.0000000000
49.2937395981 23.4854928145 0.5145026798 38095.0000000000
53.7724928763 25.6078533759 -0.1766740185 45586.0000000000
44.7749823712 18.7442379688 -0.4234833916 45201.0000000000
32.6649975223 15.5628385712 -0.5429338224 49152.0000000000
4.1609024534 1.7449288038 -0.0957951115 1090.0000000000
6.2161215122 2.9614464274 -0.1847440075 2855.0000000000
4.1730745068 1.7483244361 -0.1496372110 1280.0000000000
4.1732003884 1.7500845335 -0.2056574685 1036.0000000000
6.2155486310 2.9611734820 -0.3540877867 412.0000000000
4.1531212698 1.7416666561 -0.2588791295 1559.0000000000
6.3095923909 3.0059800097 -0.4412927485 476.0000000000
4.1938989373 1.7570462291 -0.3146164139 1070.0000000000
6.2381043979 2.9732533633 -0.5197744252 278.0000000000
4.1817720673 1.7545337187 -0.3693253438 1625.0000000000
4.1963432204 1.7589283292 -0.4256130316 929.0000000000
6.3048335408 3.0050603136 -0.6957584851 87.0000000000
4.1706767274 1.7490265254 -0.4794658453 1230.0000000000
4.1732458040 1.7509574575 -0.5324254415 1130.0000000000
4.1870542370 1.7567492753 -0.5903529152 1206.0000000000
4.1791866504 1.7517392081 -0.6429658558 1143.0000000000
4.1612218077 1.7459141050 -0.6948575696 763.0000000000
4.1815233270 1.7544293869 -0.7532964532 1113.0000000000
4.1626548532 1.7456634718 -0.8032139288 1126.0000000000
49.5445614064 23.4187623719 0.5163687582 46687.0000000000
53.8001707626 25.4188386313 -0.1765078634 21646.0000000000
44.6401732827 18.5270548840 -0.4216682722 30432.0000000000
32.6827583932 15.4484496339 -0.5424385165 41208.0000000000
4.1551577635 1.7275505453 -0.0955396146 1084.0000000000
6.2351192148 2.9470608283 -0.1850396306 2761.0000000000
4.1645730264 1.7297643667 -0.1491398833 1046.0000000000
6.3049255850 2.9800572168 -0.2710244917 134.0000000000
4.1739376443 1.7353560806 -0.2054297818 1075.0000000000
6.1921001227 2.9267263708 -0.3522350659 221.0000000000
4.1455387022 1.7235525476 -0.2580732331 1202.0000000000
6.3187849135 2.9866083064 -0.4412927485 379.0000000000
4.1854497424 1.7384328705 -0.3135779018 1001.0000000000
6.3481599353 3.0018463793 -0.5281915351 283.0000000000
4.1705701245 1.7348075768 -0.3678598439 1100.0000000000
4.2026392321 1.7464278149 -0.4257064448 991.0000000000
4.1723500838 1.7346962383 -0.4790428716 1042.0000000000
4.1703451509 1.7347140243 -0.5313707248 879.0000000000
4.1832682060 1.7400879158 -0.5890597670 992.0000000000
4.1744842781 1.7347314538 -0.6414159423 1095.0000000000
4.1656460847 1.7327599762 -0.6947049288 908.0000000000
4.1877969530 1.7419711388 -0.7534608122 773.0000000000
4.1561732472 1.7279726137 -0.8009296939 787.0000000000
49.9583997386 23.4271327842 0.5199312715 20030.0000000000
4.1379143043 1.7038295405 0.0132367402 232.0000000000
54.0146265524 25.3177486792 -0.1769558887 14945.0000000000
45.2932689371 18.6354156545 -0.4272968876 28680.0000000000
32.8286765913 15.3943808075 -0.5440745267 45197.0000000000
4.1456481942 1.7087004806 -0.0951989521 956.0000000000
6.2540870635 2.9325864911 -0.1853352538 2180.0000000000
4.1698602694 1.7169794961 -0.1491398833 988.0000000000
4.1700057034 1.7187367354 -0.2049744083 1109.0000000000
6.2001458572 2.9072914920 -0.3521836014 172.0000000000
4.1618836431 1.7153901261 -0.2587640014 1413.0000000000
6.3089426226 2.9583102635 -0.4399668317 425.0000000000
4.1870734712 1.7240649868 -0.3133009653 730.0000000000
4.1629724716 1.7166862006 -0.3667200107 1215.0000000000
4.1969300749 1.7289763942 -0.4245854858 1299.0000000000
4.1712165869 1.7192356672 -0.4783026676 875.0000000000
4.1710567938 1.7200189110 -0.5307847711 958.0000000000
4.1812529575 1.7242222146 -0.5880252485 1010.0000000000
4.1688015480 1.7173920736 -0.6397251275 862.0000000000
4.1608919415 1.7158285153 -0.6930258792 842.0000000000
4.1757945023 1.7219720011 -0.7503379910 746.0000000000
4.1541734023 1.7122132027 -0.7995240109 1011.0000000000
4.1384927011 1.6892375609 0.0132219049 311.0000000000
54.1346639198 25.1717317164 -0.1770953403 14992.0000000000
4.2053134552 1.7156500716 -0.0395158297 150.0000000000
33.0525364800 15.3758316866 -0.5470013340 32566.0000000000
4.1295834092 1.6872787832 -0.0947092497 1007.0000000000
6.2848074358 2.9235047866 -0.1859802498 1737.0000000000
4.1556753687 1.6962489124 -0.1484436246 1097.0000000000
4.1734095031 1.7051797768 -0.2048833337 1109.0000000000
4.1532635292 1.6969510501 -0.2579005410 1464.0000000000
4.1720225305 1.7029193375 -0.3117778142 1031.0000000000
6.2742458234 2.9199210222 -0.5205259528 180.0000000000
4.1553030040 1.6986278216 -0.3655801775 1024.0000000000
4.1819357897 1.7078133418 -0.4225303941 999.0000000000
4.1737098086 1.7053024382 -0.4779854374 1202.0000000000
4.1698789479 1.7045844095 -0.5299644358 1079.0000000000
4.1755081436 1.7068848300 -0.5864734707 1356.0000000000
4.1749673962 1.7049684847 -0.6398660287 1132.0000000000
4.1743700038 1.7064197191 -0.6943996470 990.0000000000
4.1819708841 1.7095258859 -0.7505023500 934.0000000000
4.1548500975 1.6975990921 -0.7986454591 885.0000000000
4.1418016611 1.6757829715 0.0132159708 311.0000000000
4.3190243794 1.7465903576 -0.0405368343 228.0000000000
33.7414243654 15.5705614972 -0.5576128864 44974.0000000000
4.1143531020 1.6663470242 -0.0942408387 860.0000000000
6.3391297529 2.9251523886 -0.1873239916 1263.0000000000
4.1543741191 1.6808681986 -0.1482115383 1177.0000000000
4.1776953328 1.6919930147 -0.2048377963 1228.0000000000
4.1528979247 1.6819530448 -0.2575551569 1439.0000000000
6.3840644489 2.9458885212 -0.4439445820 183.0000000000
4.1790770096 1.6908598652 -0.3119162824 1052.0000000000
4.1595709987 1.6854973356 -0.3654987608 1064.0000000000
4.1825410011 1.6931078833 -0.4220633278 1056.0000000000
4.1715482642 1.6895041907 -0.4771394900 1094.0000000000
4.1769298285 1.6925291019 -0.5301988173 1081.0000000000
4.1742917138 1.6914604465 -0.5855682670 1311.0000000000
4.1682480735 1.6873238688 -0.6380343127 899.0000000000
4.1649298638 1.6876681206 -0.6919573931 1128.0000000000
4.1743966118 1.6915029389 -0.7482013239 721.0000000000
4.1646011439 1.6866914420 -0.7995240109 803.0000000000
4.1404261270 1.6604634076 0.0131952014 352.0000000000
4.2018380923 1.6842353412 -0.0393849316 235.0000000000
4.0485630956 1.8530741269 -0.0666297127 504.0000000000
4.0860435845 1.6403116817 -0.0934743480 671.0000000000
6.3944298424 2.9269100645 -0.1886946081 757.0000000000
4.1446685916 1.6621642461 -0.1476810555 1128.0000000000
4.1448558173 1.6639138155 -0.2029707654 810.0000000000
4.1070801093 1.6487539198 -0.2543891354 833.0000000000
6.3359029667 2.9001190021 -0.4399668317 128.0000000000
4.1694294908 1.6720910916 -0.3108085362 1187.0000000000
4.1619477260 1.6716139208 -0.3652545108 1326.0000000000
4.1747788239 1.6750789410 -0.4207555422 968.0000000000
4.1720976949 1.6748463445 -0.4766107729 1094.0000000000
4.1664356385 1.6734158895 -0.5282065747 1093.0000000000
4.1573766205 1.6697785489 -0.5824647114 1009.0000000000
4.1596221705 1.6689994449 -0.6359207942 873.0000000000
4.1664194904 1.6734094058 -0.6913468296 981.0000000000
4.1539360459 1.6683971031 -0.7435992717 1002.0000000000
4.1633609218 1.6713401609 -0.7982940383 802.0000000000
4.1575820174 1.6525534053 0.0132337731 474.0000000000
4.1400721298 1.6447617650 -0.0387566211 365.0000000000
4.0560500605 1.8414713558 -0.0666597312 665.0000000000
4.0919857435 1.6281376654 -0.0934956394 767.0000000000
4.0986638688 1.6291421956 -0.1458575207 963.0000000000
4.1153126137 1.8683795742 -0.1754590349 239.0000000000
4.1499411264 1.6511897464 -0.2029707654 1009.0000000000
4.0920665315 1.8578246686 -0.2308818509 175.0000000000
4.0750129546 1.6213866428 -0.2520865743 627.0000000000
